1124
 32032.8380217 54291.561481 52697.1508518
 34524.9990672 55022.6121708 53706.2294855
 12110.2965688 32867.800278 85247.8357815
 45918.5274347 23451.140254 81442.6513301
 33060.4312392 54938.2368768 51075.2295738
 34936.025369 54622.6917714 52259.2395801
 16897.37102 44490.4549037 50183.7024416
 34546.7518524 53941.9306614 51428.0663166
 22191.6367989 15642.7611488 75330.7489317
 14679.4426946 20507.5080252 67986.3962304
 33949.355258 58094.1538893 58637.2941688
 25046.7924449 57567.3726033 62195.3565951
 32359.596631 53859.6988308 53992.7942511
 34396.4946326 55355.8285791 52794.8244411
 19751.909857 56020.5974199 63883.6461261
 40692.1556108 61616.700636 72105.4777089
 24900.8910391 27312.3175391 92398.1809217
 21089.5386405 29925.1500478 89596.2740276
 35380.5099963 60364.750645 61290.2947075
 34030.5393022 55692.9049043 54303.4155578
 36820.2253521 17888.3431587 82408.907802
 36470.0701419 59985.8829526 60178.1717867
 35851.5705373 60235.1240933 58406.6855563
 34295.9293218 58765.7071941 61294.523468
 25123.1893528 17291.7417565 78274.9907076
 44903.3938176 29640.8880529 50494.4079676
 36555.6077666 58620.9650502 63548.3508432
 34966.1678967 57771.5746223 60085.8294946
 24170.0474901 20456.2045239 52242.2392672
 33554.2851205 53391.7147065 52765.9052103
 32197.5961773 42256.1065029 44847.6251111
 50091.4912946 24871.4421003 69058.34318
 15001.5996052 57579.0071874 68726.5825973
 33202.6778928 52633.3947673 51138.5706871
 36970.757612 60170.2268679 61221.0978139
 31065.2284015 52499.9594871 52476.7762312
 35087.1135777 54440.2214416 53237.5426375
 44685.4282762 27729.3126349 83571.7234055
 45061.3410418 41772.5481703 89511.600008
 39293.6047706 53630.3192051 56251.0995113
 34662.1257046 54830.8364777 51165.6223862
 35259.6884945 54385.7423728 50877.9951995
 37087.1397913 59241.1592391 60842.6631214
 32626.6368263 53556.8795394 52631.5334534
 52793.0095565 46542.8148785 76351.7521223
 35276.5521151 60830.0228714 66629.8600303
 38216.4011993 61512.8293175 63123.267024
 34584.4698469 53614.2460461 53086.5029138
 36235.9387226 60608.9297783 61073.3899208
 33775.1870612 61561.2103302 64360.7086312
 20881.9814317 19508.6421343 85954.697707
 34170.9804982 53847.6351617 52211.3736869
 33736.3463221 59590.0221186 58073.0317918
 35345.5537843 60411.3801914 62926.1457328
 34091.5214758 59618.5900539 60652.1475451
 34958.0091732 59503.4138871 59980.7723841
 33802.4799215 60829.7024164 60610.5450787
 19110.2624916 36486.1012199 49506.9139058
 32820.3431285 53032.6938093 53465.7895449
 35549.0512363 59336.5611914 61773.3380964
 31569.9567152 55011.5643105 55350.4924064
 51632.0050079 51268.3594358 68773.059291
 37605.8418825 57952.653355 60584.3934017
 33903.1884441 61687.2741085 63111.9842127
 34805.8385238 56617.4673377 58356.1523922
 28041.518001 24907.5740717 88886.4206336
 35503.8676346 61367.1342677 62924.0205083
 13093.8722221 53537.3789565 66942.1806752
 36542.9560458 60831.6892486 62021.2096447
 19484.5268108 16788.6393406 65204.879588
 32542.4599612 57682.3970619 60861.4480421
 35578.0119609 60992.4201879 61995.8532398
 33036.8582466 61168.6150377 61321.8943252
 33091.292036 60543.9470332 62088.5735267
 34687.3038841 61301.842449 62540.4394631
 35661.6157652 58844.6626128 63318.522403
 35753.8433916 58946.0494522 64362.7180348
 40267.8365921 32161.7522153 93641.5129235
 36120.5521225 53999.5675335 54378.4311108
 38669.6454629 58168.4588388 58068.7352892
 32735.950955 61415.2968092 62541.9400535
 37523.4190446 58757.9079993 60124.5286884
 33221.8882729 53188.3594202 51919.828542
 35793.1064657 59522.9548297 62641.6438036
 35287.148256 55185.6110745 54059.1211385
 38273.260722 57846.5325957 58809.7357058
 38691.4499441 59678.4006941 61534.5573522
 36256.4734799 55038.0970056 54391.0120879
 27270.6495259 14513.771656 68217.8834339
 34053.0469734 59294.7008781 63388.9199286
 35447.8258039 54478.102603 54845.0885428
 36904.2647136 52579.6766365 54135.4002749
 35052.0977046 54619.6386982 55705.1633791
 38135.5285522 53946.5971906 55044.9149391
 36989.9352192 59512.4068257 63521.0312656
 18962.0274074 33978.923235 92459.5516386
 31241.5653166 16271.7743345 59745.1033149
 38278.5193641 59460.2248536 60603.0239107
 38110.7079874 59245.9027302 63585.7856952
 37421.7742955 59760.2885821 60124.1670184
 17068.5089541 31310.8932778 50216.5112342
 36049.6407168 55604.3971498 55437.0580295
 34450.0619244 60475.7989629 63427.4765965
 27525.4716666 58703.2424413 76517.2760855
 35895.6892914 54543.9689809 53689.1035445
 42017.9138195 16439.5619401 69319.0804792
 34010.9327963 54423.0532616 53076.5311375
 37146.1615714 55012.7031657 54425.9230061
 33753.2989876 61420.9027342 62045.763092
 38597.5854427 31861.5535224 94178.4909347
 39100.1882595 59623.4040787 63272.9838203
 38108.2885036 59205.7077963 59599.7976336
 22872.4396096 19698.5486517 60686.7117846
 47666.4344006 33098.1938946 83036.8307011
 22689.6512402 46408.4222838 89073.7731685
 38264.1517749 60166.0928882 63586.7383437
 35482.734121 60661.8987337 63632.6572983
 23379.9754402 30085.0908195 92531.3687122
 36903.3660623 55601.9563191 55204.2392435
 34524.7335166 62320.1425818 62696.2981145
 34431.7305985 62573.3262327 63457.9543344
 48432.7225018 26329.8966934 65516.3610621
 36549.5692663 55304.3614993 53414.3614236
 34804.230789 61423.1082596 63547.0456001
 48330.1789172 44490.8053333 84375.6752406
 37008.4976958 55857.4100357 54101.1647983
 36520.9222156 54713.9748601 55131.6864359
 38976.0669058 61317.3784973 63376.0773431
 47300.1167802 37885.8720034 50702.5224705
 51406.2963723 39846.5008125 60056.4210555
 9649.89954692 29314.9100709 63473.7148204
 25526.910463 14245.3953957 63382.0426432
 31392.8884457 54254.2172929 54496.5058834
 39208.2845545 58422.9930796 62807.886488
 37067.9737057 56979.1449932 55556.3165359
 38448.0996768 60747.9463656 61249.1627734
 17848.4596517 48894.2744021 51418.1555866
 28420.8477121 38914.0621282 46113.4731659
 53740.6681189 44384.9950884 67790.5839589
 36884.5022516 54368.4197671 53713.164872
 50614.8997546 41901.1951859 77920.6200109
 25675.7395893 54559.0161179 51084.9099576
 31504.9697741 51270.0171088 50971.821822
 38452.9486398 53257.2461015 55644.9153357
 34440.0397951 56014.2126012 53473.8198211
 36759.9009427 58724.0127506 56343.9224691
 24782.5414225 62191.294875 69975.081353
 44347.09046 42730.3996109 91655.128919
 36882.6732709 54106.2659016 55789.1559409
 36584.5075671 56486.3714524 54793.8570603
 38684.6201827 53241.3450724 54603.678772
 35114.7393618 61760.4641466 61455.2306519
 23956.8339904 14747.1469616 71170.5290539
 37048.4036065 54027.3442419 54698.3002163
 33316.2096804 45895.5897039 46743.0628876
 33703.3527119 57195.1330307 58763.1333646
 35443.9810139 56333.1400712 55206.7431029
 37697.1477508 58434.9367507 58111.4725773
 34594.9031703 55108.1959318 54803.2812351
 23205.3552139 58088.5400624 75179.8601732
 34540.9804684 56164.5839632 54974.4576725
 46883.3985682 20005.4973996 69893.1019696
 11351.1930586 33753.8797572 53274.1042382
 5074.78690178 38677.2614948 75851.4611867
 37994.1233034 58024.7115005 59621.1839108
 27865.5458516 56256.7783495 54893.2159753
 37938.3871667 56709.9161263 56191.1117351
 35677.7285037 62322.5016284 63549.4599414
 37460.1204737 53534.6696742 55470.4011585
 42852.0474554 56819.9343904 72448.7109621
 38925.0321546 57067.2287255 58257.3207701
 49286.1384513 43338.9909843 84937.3034685
 19489.0261936 57083.0580158 82185.5970304
 38467.4633412 52495.839682 54984.7101237
 29283.5237853 56461.2006014 53436.5177854
 48263.9931363 30178.9125177 83671.9323554
 10433.2322213 46923.7628551 70257.9626448
 55877.5148224 41550.3773085 73600.9992819
 37969.5412153 58003.8949072 57155.2930055
 20494.9964825 21420.4484281 80994.6374397
 20444.109851 14123.6746535 67523.414035
 35871.0106266 56347.2609216 58249.9753188
 38888.3824815 57554.7582029 57359.0900062
 30376.1497762 58773.5515855 63669.1693654
 36532.2362311 55630.7486903 56298.2878779
 22298.9359699 46776.0416526 93306.6119514
 36948.2144433 56515.8430215 58865.6293266
 28422.7632982 53172.0223238 53324.314169
 15709.8426064 46998.1023156 55469.0138226
 33392.4951274 58707.6996804 60983.9794937
 11624.2656318 22265.7182104 76335.2045848
 37502.3216189 56573.2011974 57865.2825612
 37294.4874817 57508.0074901 58714.2090646
 37928.802893 57009.7027052 57117.9590461
 43769.6245753 51046.8012924 53560.9476202
 29426.9324217 60642.2217769 59724.5373861
 31616.4333631 20360.0607998 55135.4820177
 30570.8036004 12850.8550471 76967.8958138
 39891.2070244 57512.6244995 57947.4895954
 36666.2369951 58055.5126372 55239.0497676
 37968.2125486 57441.0728059 57926.906913
 48480.7390255 29481.5023557 79547.0915796
 7240.86653537 31627.2647349 62706.194611
 31741.0450577 59608.1367386 62931.0837636
 13311.363682 30122.9245615 88225.0053946
 36782.4181792 58054.8656609 56825.4490532
 23112.0673586 40994.0744065 45735.7463905
 37799.334527 58903.5930985 58801.9276075
 37546.7083201 23300.6934145 86233.6782675
 36686.0322885 57950.6123226 58215.8639926
 33768.7911626 43668.118211 47779.0783828
 55498.8574241 42708.2685418 66002.6998801
 36056.6379292 55681.245944 57214.293724
 37251.6434911 58406.4012864 59102.1797523
 39209.8539904 57332.6306538 58914.5904717
 25397.2141443 62728.4328689 75556.1654888
 11717.3053437 34633.4418952 52684.3052927
 24459.1760218 15880.0743237 70642.6116087
 31948.6407634 55841.0388595 56674.7505402
 32365.5374487 55369.9549461 55781.5396039
 32461.3897855 56413.0138995 54611.7430079
 36727.2048879 58932.7351053 58299.6464121
 48483.6973299 37742.2708252 82823.0591744
 33988.4347305 56366.906685 58943.2079786
 41418.1701666 50517.345157 53831.1489452
 31170.5152329 56396.0935037 56725.2544753
 34351.0717589 16956.2181356 65007.1699252
 36931.9499669 55336.9983903 57239.2336601
 36118.8748958 56278.1730166 59686.1122807
 29568.1560523 56794.5344319 54374.9745618
 28689.2108258 54515.0775409 54903.663221
 31248.5568009 55686.8502013 55947.6161802
 20092.1239781 57955.7257672 67429.0250291
 26469.3512155 43617.0608975 45442.8800126
 39553.5481135 56823.9840251 57518.8797237
 28085.7811307 55356.1504483 54805.2984019
 31616.5066488 54286.0183355 53536.430006
 26141.9909709 55432.8383268 54410.7670633
 15195.143183 23790.3664646 54773.7803987
 35501.5100174 29815.9828383 48214.4355257
 47651.3567596 41360.187859 87914.4045837
 41255.3125028 57533.2780454 58960.2107447
 31267.2180333 55756.2217541 53835.1123543
 15506.7495971 44921.1255937 55767.492701
 34898.8828953 56404.2769103 52694.8635787
 50685.0231963 40285.8409881 57706.2413881
 30372.225678 55258.9540217 55520.986692
 31403.6898328 56313.1956068 54533.1613884
 40780.2900319 57698.4252031 57262.9638143
 53236.3934091 37997.7256091 58099.0929886
 49851.4983306 24741.9005275 70759.2086055
 52258.6319042 27332.8504487 70102.4689056
 29522.7966751 53637.3385798 53487.9834754
 47667.3389194 25664.6051432 82291.2272524
 10709.700797 38536.876208 87241.709779
 52861.4996066 26610.4109035 70771.6192934
 30121.0281198 55345.0427296 54639.1104873
 48986.6203333 27160.007857 83148.3337414
 30701.9808555 53988.4319953 53368.0581475
 40556.1680747 35335.6615138 48054.434828
 30849.6946849 54866.3515515 53990.8905512
 43086.5865177 37650.4541587 92977.7988772
 28938.8798925 56037.8475552 55084.8550816
 31975.0932051 52468.144251 86737.5689727
 32499.8325802 61909.7657459 60846.062611
 38487.1421819 56474.902731 57770.1072006
 50809.9975195 39204.7652232 60367.4561598
 30476.0363325 55913.2472713 54127.9234914
 30739.5008615 56074.5902661 55193.9246046
 19068.3081062 31895.3669512 88134.4927523
 26421.7839768 54571.5701684 54098.2476592
 31957.9087047 54932.515242 54193.1892022
 31033.828015 28612.7115834 46963.2213924
 14546.0635691 51509.8058132 59885.551614
 22698.2286555 15290.8352712 78083.8964082
 39282.8230023 34242.0932031 47315.4507496
 47546.2620987 53946.864641 79355.8053047
 29141.964908 18364.091629 81813.2284264
 40888.3002554 31435.4741805 48540.1185922
 11441.2504573 35046.8726966 86115.4503096
 5541.2639379 38882.3318315 77728.4100934
 52028.2113806 41695.4671086 71013.4227889
 26891.9944393 56281.2648915 54212.1219559
 13846.3919704 27224.6827529 60682.1731162
 23270.8391137 34136.4737445 92262.1866384
 28395.4406905 55421.2923613 55702.4672834
 28622.715962 56960.1905023 53976.3411152
 16278.7012668 47182.6388384 50687.463557
 13017.8948954 25115.7828261 56013.4343368
 13787.3323616 41130.2453129 51825.2338379
 37802.6262001 54548.2639316 83912.7765125
 21138.5402182 16436.1455938 61322.6150135
 52408.2018236 29656.5042805 70671.8331088
 30358.9925821 18441.0352096 83422.558778
 27678.6082501 55785.2964855 53825.4291805
 28242.766748 53755.6367957 52602.5638035
 34113.6102481 63498.2813822 68889.2695158
 21381.8424866 46792.8459956 52397.3236446
 19530.2965236 20241.4324964 79432.9905857
 27364.5054605 55762.3758189 55596.8959968
 28632.9770435 56206.2203899 52075.9130011
 42464.0955794 25474.1126362 87462.771954
 29394.9454849 52867.4827163 53062.3340289
 27185.2770928 55471.0557491 54630.042942
 26349.5244587 53138.7676362 52920.1607167
 5666.51869609 43885.1067615 75244.9859634
 30026.2339101 54012.9784532 51848.4587647
 17430.4902046 53081.7692929 59185.9396052
 39636.7893415 15487.8326001 67756.9969224
 26939.124632 52422.539433 54190.3159029
 19139.5533362 58481.0151628 74697.273415
 28394.7285439 54107.3041534 51639.6784347
 25473.1941176 56396.7629341 55520.1112789
 34210.1452013 60318.3187566 71627.1820613
 30659.6299598 51586.5415953 52197.5649438
 35338.6308776 14507.0406257 80318.2576166
 17355.0717283 22928.7371027 79751.8087866
 37836.1258716 56351.7334176 59411.0760458
 30724.7331186 29602.9481922 93928.2364706
 15842.2166754 46435.035604 85617.9957496
 8678.62328488 35015.6074966 71455.5937807
 30544.1342336 61128.4736677 64351.1322525
 18447.3336832 30341.9542021 49623.2065903
 29317.9763588 55800.2562353 52644.0306217
 41638.9751351 39006.0581488 49796.7043318
 28231.1482175 54514.4811272 56159.6502753
 10382.4785316 53016.6154485 72327.9669607
 34397.9311155 44379.9624778 48006.2959303
 31319.6438039 59514.9480744 66568.8272102
 50731.8369386 24968.8740731 77135.3745397
 50760.2271406 25539.3373797 65249.7335644
 38439.4329038 18150.284728 65064.2168091
 15586.1859115 37677.2558672 52306.9624536
 8656.78483558 43343.3034031 59329.8055505
 27725.2754546 17342.9148664 59395.6655154
 26630.5158715 29985.8482635 50238.8184097
 35224.3301051 17629.0780546 60746.9601749
 49344.7117385 46430.4841076 82753.7167097
 45578.9884376 57450.1552106 62602.9539677
 30075.5285372 54286.7345239 52768.289058
 49276.3999689 24207.9816223 77915.1135212
 7912.07881986 25055.7653849 69060.9659315
 40802.3842155 20969.0878765 85615.5701572
 13267.1804977 28765.0825701 82542.0041286
 10559.8419323 27754.8286874 80004.188888
 53060.0796777 27340.95589 68161.2249665
 44362.8613779 46137.5338437 86276.8024047
 43079.2571285 56888.956929 74736.603641
 16670.8041856 21600.6590358 75543.7860228
 48565.1888127 21549.0147986 73338.6612131
 12340.8217945 29337.3250856 82943.0433809
 38641.5875516 18244.2847484 81141.6856223
 29678.5315548 56135.5734299 51986.0779661
 11348.5392031 45951.8567738 81584.6495546
 28560.0329646 55416.8972821 52400.7649778
 51196.4311652 27098.3302361 74584.4389803
 52632.2509937 26690.2093578 72476.9530562
 40815.9315656 38184.1989212 47463.0394588
 51606.2648088 24646.3807732 71714.5884316
 24188.6615034 51971.118495 51740.9643998
 49795.8905896 22586.984771 78130.7981108
 51244.3922633 23890.5741811 71040.1755804
 6236.64105979 38107.8229975 73429.8884776
 51454.8561656 25963.6864839 72683.8409374
 4508.96567777 36535.5873669 70555.1740822
 49970.9437164 24158.7376288 75431.9027593
 53321.9053626 25863.9970328 71554.0438319
 20113.2781301 39919.8843887 48563.4866073
 49534.6041241 23294.05056 77314.3323004
 50036.3765689 26695.6448667 74578.2280133
 33950.6928441 43148.1872168 45169.9401909
 52215.3256029 28616.7589531 68093.3027638
 51133.758405 23012.0000844 74773.6870941
 50436.6740374 25069.5646644 75534.2272832
 33993.5320988 34660.8219458 92880.110663
 41693.3094047 16084.61834 62097.3584649
 48610.8826653 23144.7442184 77183.623634
 53497.644389 28098.7911904 70769.0634511
 38623.3395652 61242.2161866 78075.5425016
 17034.7966985 56113.2917095 72738.6813967
 52945.049029 25236.1677124 71319.2253696
 12584.4177664 27940.8636794 83533.7693945
 51915.5869535 35138.1973139 80153.8459782
 49990.9684909 25437.4660903 74709.5436211
 20852.8646707 57348.9924826 73742.1007906
 53976.175278 27268.9006449 71448.3304468
 19153.689392 59108.8294647 68028.7410412
 49472.4328452 25400.2231345 76350.4365411
 49927.4939964 24240.7644972 78472.9193742
 18846.2198713 16699.6784744 60920.8843523
 50206.5547604 25784.3959167 77177.185052
 12310.3562111 49258.2463242 65119.2023728
 10452.9582253 23750.2325211 66027.7815438
 50052.708255 46579.7217742 65642.9259917
 47886.6977721 22933.0263846 79157.9539213
 41748.4378353 20784.1450339 83563.7798711
 35288.7999917 36532.2975474 94765.7289626
 52147.4900027 31195.1284305 70464.5295375
 13851.185594 38016.6147291 88207.2753948
 34301.5502365 27164.2269616 89208.7595772
  15203.8838 52757.3148623 78238.7470779
 49626.312489 24793.3412187 77087.9387473
 12096.4153725 53609.0869556 67653.1890248
 37527.2418296 38661.0396298 94315.3070301
 13915.1383989 28319.3399248 84132.5543798
 48868.87123 22657.175208 78018.1841516
 44255.6410196 54158.5090374 65247.9024392
 25672.6093177 52697.514351 52597.8391743
 30480.4292933 52343.5753376 51609.1632477
 31370.983341 40072.9181469 44547.9116971
 49312.8954019 25614.4923039 77326.1837239
 40242.2001834 47201.1911363 50479.4833735
 49548.7892538 43673.4756576 55858.8312927
 23736.2067102 17626.6911696 57185.5183823
 27231.4509424 13593.327579 65404.9935193
 14272.1198084 21464.012645 60625.7312044
 33881.6192393 16019.9155272 82163.6663611
 43727.7293013 38292.1973615 87747.5778953
 50161.3190073 23607.102723 79125.8554696
 15190.0084655 47661.1548465 54144.3752003
 51677.1105911 28129.1496239 70488.5123239
 38110.4614166 30587.7101205 49123.9534098
 47588.7570891 25016.3734861 78584.3280898
 38307.5921887 37981.1064201 92454.4120473
 53857.0001394 29332.1129151 69529.4593277
 52238.4009874 28905.7771219 71053.9899492
 53390.8694298 28183.9996293 67719.635198
 46507.0030074 24840.7352274 77683.5336876
 29284.7764221 55914.4156139 82755.2692145
 46706.021947 24723.2962379 76908.8098339
 46860.6809518 21094.2916721 67611.8724327
 51662.3025392 28284.2181273 71584.3330734
 53759.0714594 30784.911088 70504.6822043
 45040.8933943 49852.1602052 86839.4091943
 51544.5605498 29426.3860246 70492.7778758
 29666.1137621 61902.1456064 78094.700454
 29057.1477543 33217.3859933 94026.162521
 29896.8998825 23446.2062562 88814.4142785
 49169.6548202 23447.6903476 78245.5883984
 50895.1887766 51711.2793284 65960.1919832
 51875.4620259 30036.5181081 68932.9296214
 54155.6178103 29980.0305486 68131.174592
 29560.7490162 14257.0858473 59804.5683277
 19513.1601769 19269.6552481 84750.4471454
 52163.5053101 29084.1488582 72024.5405091
 18877.9563201 43658.6694348 89225.6132624
 52154.3066904 27908.0543642 66649.3593169
 48929.9492133 51944.6160562 61296.661256
 53532.3569238 29195.1361563 67027.7749873
 53043.5577414 28052.4107735 68487.0301556
 22891.2577371 20826.7164113 81915.5044474
 52332.6047112 29608.6027196 69714.0434731
 53038.8417233 29008.1853391 68120.5687371
 42427.0715882 38939.9033022 47313.9883387
 50958.8556689 27595.2825948 71063.7250731
 51107.345733 28630.4724014 70913.3443245
 33400.6860492 23487.7959562 49029.9512205
 43568.8228446 16101.846609 65451.0937635
 54069.8038682 27987.5717002 66430.9888014
 53447.6183773 45908.9281386 76337.1679049
 52731.8866507 28142.6436097 69896.5187934
 49670.8166473 23562.5985212 72568.4077861
 15497.220507 19744.8401253 79481.3054999
 40012.0297224 39607.5285019 50598.0477855
 48445.6467468 20562.6611376 63626.097891
 20449.7605677 17841.4887046 65850.1962568
 51909.8196116 27843.6324343 68605.0111566
 51762.0423492 27980.9614216 69542.0839227
 54076.4621881 29272.5529431 71349.3871406
 54621.5129285 28924.5125929 68065.4548875
 17095.099979 50551.3171232 88656.7593397
 49624.5082396 32705.1488513 82843.624456
 53838.5501742 29117.2544632 72235.0684346
 38143.9138909 18959.6347967 78384.9614905
 54937.1115499 29643.9939589 71105.2425579
 51926.8994234 26845.4664283 69363.5936965
 51200.891828 28510.179465 68241.9557399
 47719.5823333 35508.0254407 55530.4439766
 53105.1897195 31442.0575444 70653.8608769
 30208.3479089 21648.9030882 90513.2623188
 47143.6876858 41886.3606912 53966.0612644
 10162.4766059 47459.0200066 79870.1984546
 52726.197574 37219.5900207 64366.6630569
 54794.1907629 36109.3947031 69040.2847555
 54661.9184733 31609.0469316 71316.904896
 53946.9777819 27617.1432128 67046.9924215
 41722.7743729 56346.7785994 66654.1818164
 29591.0070739 60767.1815537 68479.5173499
 10434.1502214 26413.3530045 68098.2959507
 27222.2455663 25327.5583388 89071.2058563
 37556.109106 13267.797846 66493.3107015
 51160.9130502 27235.4705518 68391.2444331
 52359.5902264 26001.2374735 68799.9380834
 32546.0488735 29152.3854158 93332.5183661
 30422.6031444 22505.2180839 90214.6250555
 33879.9715841 32623.0248687 95530.9058013
 53846.0087431 31168.0364886 69832.5137378
 54650.6209884 31308.0999199 70458.3857474
 48056.4146719 31223.0035781 55154.2485938
 6524.57434997 37626.4249482 69703.3497176
 51340.1887927 25666.792528 68554.2286468
 5360.5790201 37196.3701603 68062.7322549
 25479.3740677 15424.4999846 79931.2829246
 12336.1183888 50231.0767123 68288.9117641
 50336.1896993 26717.3929545 68892.2724343
 50743.9106277 24058.2703937 69488.9360209
 54865.535252 32266.6451017 70705.6955697
 53286.5700459 25701.577137 70060.7570184
 54488.3072783 30615.7469749 71034.9795939
 7399.6561804 40599.5057376 72981.4663952
 48449.9894565 46863.6704378 82455.1175285
 28406.298124 26963.9203073 46917.3450825
 54278.1841779 29820.4983006 70096.8115441
 38800.0335804 50785.42299 90306.2424338
 11018.6026776 48288.3006853 56646.1127743
 52366.27299 25700.4134816 70892.6248627
 51983.8900308 25083.7909913 68360.6729418
 38884.7151073 18703.0669422 79274.3420341
 39589.6535706 19702.964696 78498.2763679
 51402.3229953 25669.0104932 71181.6349947
 49199.0783087 40068.2340315 85391.0979445
 22473.8254516 61313.1942605 64348.9534517
 27455.6195014 59639.8835526 59009.058968
 51520.6719682 26024.4256947 70345.537078
 32666.3243415 14453.6534578 72594.54849
 48996.26856 41558.6673253 82918.5545503
 52093.6836632 23682.5984754 69603.1831382
 30180.1081765 51086.493062 87892.6823083
 53506.713051 31978.5512456 69761.0435528
 51145.5118915 26694.4663206 71763.4588745
 10278.692154 27689.4123983 57631.8643266
 54864.4760915 32036.1102449 69894.6994361
 48391.3446549 20957.3048698 75481.694655
 32568.4497481 17199.4582892 83236.3845861
 38769.4557737 61652.590684 68791.3109826
 53895.5628662 31588.9178203 68299.8262691
 51025.8916439 24967.0500399 68136.0170554
 19571.8038085 28000.9438432 88120.9391933
 54528.8467206 30654.7527745 69903.2416384
 22304.0841382 20371.8410617 84363.5387076
 53671.3515092 30353.524781 69578.4702352
 54909.0808938 32117.3841288 68988.8187488
 50997.6563591 23461.8741154 70044.2097879
 52394.2753401 31520.7134317 68899.2434701
 43103.8803224 28634.6373187 55027.7616934
 36719.0247967 14887.6096973 71516.3820194
 48804.7440403 22253.9226685 69396.5374417
 52356.794682 30891.240894 67695.429827
 55679.5046407 32030.8743939 70135.5847177
 51822.0930933 42240.5192716 81105.9418147
 49888.2214916 23732.1731952 67759.7016539
 49346.4542583 23991.2786135 70980.6609264
 21301.8969386 17040.6259002 77169.1820419
 50647.2583867 23061.7292024 69189.4244723
 49439.8744466 40989.9281761 56785.4629602
 50329.9637093 25677.6663218 68743.4980926
 51711.4905702 25250.1758141 67430.5377386
 50848.46384 27916.2029294 70045.6747051
 30318.7295968 58290.3540968 86425.7931808
 12102.2632578 29721.3989312 61388.7188815
 50567.1032527 23109.4504723 70712.4013392
 17847.4242115 44631.9280354 88117.6282211
 13475.4546848 20834.2229345 77982.8944205
 49013.7650197 37799.407403 55658.017852
 34840.2366186 46668.6076722 90821.3792577
 51498.9059483 24256.0931312 67927.8869021
 50705.6497225  26391.1382 68071.8977793
 11589.369501 52103.5742017 78968.1059459
 11482.2525575 50770.0596846 80311.1886602
 17950.1158835 43592.3567129 88529.4956764
 33973.0977543 16279.6654585 71118.1777709
 37138.0642956 62504.8778859 74919.2881426
 53247.627785 42092.532659 77233.9949981
 51166.8198962 22642.4086293 67683.5530217
 50530.920721 43717.0969414 59591.2435109
 54284.7103693 32439.0519217 68645.9624897
 5290.2538461 31477.0394741 69724.7463732
 49077.4637627 26622.7486052 67869.7695419
 7184.73874207 34270.3924671 64345.0302098
 55060.2947818 33042.4161319 68693.4344539
 11398.0641493 49548.4936134 81912.6296124
 37160.9157632 60766.0932013 64345.5681313
 48309.8094176 23822.1444186 68852.5021797
 16420.9598416 27022.6051149 83330.88634
 50802.2567092 24676.0342228 71987.8674863
 10423.5633501 43463.2626852 57756.4347653
 50282.0521618 23939.1984587 71277.685116
 6713.10542981 27770.9072569 72818.1041364
 50716.7868015 25656.3487522 67714.6017357
 52932.2918463 38268.9376032 79182.9328241
 49565.0633775 23286.0417903 71725.1558686
 49342.904268 27738.2843775 82252.7201127
 51558.0706455 27702.6616258 67648.7771542
 48146.9482922 21939.4511956 67413.4928301
 49416.9326792 23449.6157639 68654.0937729
 49613.6478486 24373.0375542 71774.4089176
 49751.0300572 26279.5219462 68444.1047654
 9906.62363453 25945.2153981 78626.0933843
 45092.5998452 22821.0777824 78978.6328848
 28028.5393036 13154.0979998 72816.0402889
 25411.4564401 16793.1906433 80869.1874187
 9813.28987127 36343.47829 60387.2523207
 48758.8484615 22720.5215205 74803.1390589
 48770.8601459 24562.6370301 69258.3473047
 49812.4978124 26866.1970204 66301.8564215
 18190.3512403 47852.3577971 52527.9208554
 48929.0680236 24662.1394395 73976.8865674
 31889.4760112 60904.8708255 63401.8402574
 48603.9523716 23429.8174219 67048.7281136
 50393.8518713 27712.6069282 66125.4048594
 9941.02747528 29953.5082025 69517.1016825
 50159.5704142 27036.1301468 67949.7758827
 7713.58163072 45285.9671609 78228.4767615
 40252.1482645 26120.5441829 91215.2954548
 50211.2065133 23850.7666149 73245.9314159
 49645.4190599 25661.6979641 67894.5725338
 50160.3545653 25435.3106389 73247.7933782
 50395.0610184 26046.0452607 66167.4778887
 22900.3617113 21064.9397801 84887.9687298
 49017.8248523 24893.6996776 67493.1062673
 50527.3470655 24643.679546 72935.1218482
 51928.4213725 25627.869559 66488.90346
 50061.3280578 27131.1386029 67042.9552143
 49191.5318832 25730.6651629 67164.0958628
 48987.1549501 26276.8193829 69804.7394403
 49587.106728 48644.676744 80610.4056703
 48479.770425 25375.9130038 69771.4367977
 20668.0265913 15276.2775435 75379.9670577
 50770.1108478 26870.6927343 66382.2138785
 48575.2480738 24460.8783697 73161.6608049
 40374.4784479 46765.3307993 52960.6266103
 49065.5176769 23650.7317096 70138.8075157
 28405.588092 23821.7678148 50610.4351554
 51030.3287998 24204.3174695 73816.2418198
 30212.9077394 62893.6374462 71442.9953487
 7304.76228745 40631.0038364 62450.0028831
 49456.1722395 26063.5929743 73451.1341746
 48619.8130895 23977.2583982 71674.1482554
 17824.1842112 55710.654266 67647.9401091
 50748.111264 25419.7456893 72581.9892198
 49367.8290734 25933.0306937 65816.1031732
 52704.6374164 29866.6869079 62231.8247283
 50838.4451597 24200.493961 75509.9708856
 35843.5963456 38023.1033728 49067.9670197
 39765.4472187 35687.9136796 47269.3490684
 50564.0658048 23404.641996 73838.5683377
 14691.6447848 51312.7887155 81598.6344725
 13421.626586 52026.7507684 82222.7367473
 40132.945995 36970.6367578 90918.4167533
 51296.4484661 26130.8369818 66076.5133418
 49105.9346352 25095.6201084 66348.1593268
 35063.9494739 59519.4767846 65226.2470546
 51529.2418339 27180.3947603 65828.3511613
 51591.3157336 28088.2893186 65908.3928563
 14163.0149601 52584.7663925 82708.6314364
 49642.1326167 25239.4278122 65228.107288
 33183.2406361 27368.0670728 49245.277386
 49167.3274545 25258.7267312 64352.6674491
 50850.542572 25361.3045665 66734.16986
 51172.903133 23833.2008047 71949.4936081
 10008.8072239 50772.0458176 79943.3607031
 50091.7349639 25154.0945382 66139.3800016
 8208.50246692 46653.1524427 77909.3684265
 50090.0094656 22702.3497821 73607.6393329
 41200.0886172 58534.6440876 71727.2903903
 50807.427533 27409.9939617 65265.1604818
 50808.499964 24255.9578293 66227.549678
 9119.94127745 33702.3463138 66684.5359516
 51273.4324959 25079.9380159 65880.0640438
 51026.5539879 26517.7900713 65249.2289521
 11357.1348326 45906.9256206 79953.5527773
 50656.4981549 28499.1046871 65810.2944461
 48849.5909319 23185.1831055 66117.7833069
 52116.0409746 27597.4337506 65114.2252548
 32306.9804134 27917.7107799 49105.4491134
 28799.0390025 25197.6119122 51593.8042997
 37881.8502221 40402.462988 93413.7575649
 49903.6302476 24393.8644923 66894.0394583
 12170.3509717 30442.8176912 60703.8965767
 33605.7169568 13316.0622705 77890.189059
 28871.874597 36642.6909347 47571.813174
 10501.8227838 44624.1037596 79660.1506379
 50626.3224494 24204.8398466 68020.9631393
 40140.4399957 28363.2786138 49228.1492563
 17270.5757305 51356.9100838 84529.3085363
 49153.6768768 23174.8420836 67796.0867091
 51547.3089999 29637.0910155 66716.0470602
 50042.732913 29396.7413373 65325.4305463
 36864.4104752 16928.5934533 69963.3366369
 17019.2397825 19581.9907534 69159.7383915
 51629.7883273 24129.680423 64787.7475863
 51728.8751126 25653.6969918 65284.7458424
 51259.8402104 28139.6869219 65093.3198691
 49205.3118052 22084.8731663 67657.3324872
 51063.0845455 24547.8723048 65165.8199282
 52665.9827339 25106.9318151 66794.5006032
 50399.2626974 23324.2523053 66347.9528462
 53943.1805763 40719.2128559 80762.8747676
 49620.5942826 22085.8178198 66578.2485199
 53776.1080313 30479.6575453 65049.2409423
 14522.2642403 50475.3953974 81080.5223843
 12760.2002147 20078.6570507 70994.5540194
 48114.3516355 22837.625717 65744.5586949
 46820.209108 19344.7357124 64341.956044
 52332.7430182 32462.2894088 68543.5082475
 52572.2311879 27245.5469075 65982.9723506
 41577.7926119 16698.6714902 63449.7469329
 51442.1536584 26474.2390637 64342.4824265
 49751.9746066 45405.2779782 56399.9377796
 52443.0555631 24940.6614105 65863.7697554
 40300.0952969 57687.2062996 80059.7769438
 53048.6850647 25952.5457444 66430.3764902
 39685.0495375 53975.6408004 88423.718531
 48970.3090202 22564.9539897 66936.8711188
 29141.7062989 32245.0937494 48474.3724291
 49029.1576676 21478.9861584 66945.8091307
 47472.8951827 48410.5647157 86739.2925411
 52925.599335 27303.7738888 67040.1429884
 9793.65427996 38830.6331742 77820.6536409
 48347.7612918 24392.4557494 66858.5521314
 53608.3108124 29669.8855388 68750.4376646
 13338.3208186 22027.9876522 64337.2514377
 38132.805076 45878.346026 90778.847404
 48703.5835243 22239.9867332 66123.5926629
 24346.4094265 58519.2932414 64352.8624259
 48919.8441953 21484.8890393 65682.4992985
 47266.656408 37479.4911755 55162.1239368
 49005.5779085 24050.5616307 66319.5659947
 47983.122679 22660.2592271 66842.7083991
 10194.427744 27054.4427865 77921.1793495
 52709.0662554 28633.2082021 67123.2954703
 25215.8863281 34421.4551122 95530.2325224
 46031.4092492 20492.2621204 66475.2851926
 47887.4348413 19547.1960279 65111.0346603
 51214.2272668 35100.8615982 79232.4424263
 47831.3301722 23614.213854 66567.1584327
 53302.8024722 28874.4677469 66045.8075894
 53337.5596571 27010.4599366 65407.8813943
 50236.5832552 53580.6995788 64709.2878934
 15927.9799703 50528.3737312 85692.4481183
 9739.36274092 50380.1752411 69767.076898
 52218.7741141 28845.100027 66278.7426866
 14975.8901947 51226.0531353 83039.8503595
 36613.4177729 46883.743959 46926.4979216
 54409.9574084 31254.3499049 66338.5618609
 47310.2053247 23242.3254013 65897.4104993
 52026.3185693 26668.2002858 65145.8715315
 49264.5213822 21943.1038607 64309.9127095
 48182.9146403 44699.5913362 55202.2598025
 53838.9406001 35009.4645877 67659.38162
 51776.7388701 28644.5475758 67244.940825
 7417.14219759 46994.1448829 74638.0131373
 47659.1907829 20702.0520556 79181.2924961
 46877.2317299 21801.8885218 66241.2085885
 52345.0884442 29571.4903996 67404.1644563
 51722.9528881 30133.0983971 67840.9177644
 12493.9413387 19297.5686933 72705.5277638
 55064.0458618 35476.9974369 67531.6338914
 46112.0740455 18760.8314136 66010.9418111
 52463.7639522 29560.9547015 68488.7563047
 48436.526245 20739.2544894 67159.6135683
 32279.5898999 63066.6368317 76057.486109
 46880.6410789 19551.9451427 66259.4175615
 26428.0064008 49715.4049105 90717.3984556
 51591.7687692 30788.8242308 62742.4007935
 7324.9363538 47332.5914657 68239.9645239
 14904.0830365 35419.9027615 87589.4103812
 47038.2114189 20171.5813546 68052.3109854
 51158.4584407 29300.6213923 67474.0563688
 28004.9578524 24808.9932681 50551.3477498
 45878.2021304 19829.745297 65940.8018926
 44845.8990862 18412.8548722 65165.1616573
 29490.4119783 16588.0244265 75480.3974071
 42945.1927905 36884.5325788 91830.1897757
 46656.2420115 18596.3434353 64779.2419051
 31330.1481105 62084.2975741 79671.3023657
 36107.398542 48112.2461044 88951.8444002
 53022.7321124 36445.397001 71395.3300705
 9222.34793444 51362.4662804 64352.8952508
 51864.1228002 30818.2817313 68512.8840934
 8262.73520733 27854.414261 67757.169617
 51710.5138582 30616.3299787 67005.4177534
 44652.8943495 52836.5356426 56277.2546685
 51871.3683995 32463.7394103 65253.4585993
 23580.8811053 16545.1441037 62813.0200724
 52103.5405016 30820.6856439 69410.0441567
 21032.2574197 24303.1264425 51395.2636351
 53793.1889621 35995.0951652 68242.2591422
 42499.233249 27786.3991491 89356.3192401
 52126.3226776 31630.1812355 65169.8357518
 53110.0262137 32763.8122062 67268.4018377
 13500.219388 46067.6120589 81781.0508446
 52138.819486 31536.4768194 67016.2636693
 51119.1763625 30685.5400041 69417.4247012
 46191.3244705 20398.769049 67468.4826436
 30973.9113801 62336.7270837 76345.3193559
 47679.7835485 20936.020752 67721.8090812
 52743.106404 30519.6804237 65510.1040685
 34556.0280843 15100.4932845 81938.784794
 28747.4276978 54234.2074204 55738.990848
 51481.7052768 29655.1589376 69576.8390538
 54105.1382247 31394.7378932 65254.3707743
 46651.8841704 19854.3088875 69011.4721929
 53012.9953709 31581.2066152 68199.3173673
 35400.822953 59962.0171226 68928.4451373
 34271.4550264 57480.7324049 84400.9430193
 12749.0811287 51819.5461858 58977.039833
 13419.9576555 49761.5758036 54739.9514517
 53133.644759 31712.8490102 67161.4122767
 36186.9580983 35065.1904911 45981.3658727
 45831.3051352 21363.0102686 67021.5941209
 45542.5729645 19849.0138598 67148.6042035
 44569.0811407 20258.1032544 68445.1026629
 46909.1868768 20243.7079741 67004.0890301
 45137.2207761 20787.1497977 67128.7260909
 45838.449167 20310.9192295 69027.2698456
 40705.7294445 21489.0430126 60000.2335331
 54752.8126644 31997.2024123 68005.0604752
 23233.4760536 49827.2214901 89846.267793
 40373.5543065 54433.6708406 59821.4880125
 52132.8128404 30309.4932072 65071.4617756
 46653.2528958 21697.7316748 60043.4259668
 12041.913262 25050.220999 65308.665054
 45109.5085658 19589.9398743 67990.2717774
 53676.9066667 28644.5777631 68810.1854526
 52959.8473414 33113.8700364 65633.7681958
 45450.9762012 19522.2357944 64347.4958169
 54764.0997295 32327.460873 67139.9247108
 54382.3659782 30831.5547385 67776.8770661
 54251.0563831 31510.3503565 67246.2243411
 39198.2373501 16694.9232335 80610.9702871
 9686.61143699 27927.1047712 66143.8479898
 45588.6291472 21195.2841385 67896.2611901
 53135.8125471 31282.548118 65194.8494756
 52233.7594806 32358.8853809 66688.3260054
 5331.07507441 35900.2878904 64073.4140773
 54568.8558502 33295.1112778 65298.297524
 51694.9410721 34403.7594693 66083.1447732
 52770.8382961 33361.0106197 66671.3318668
 31988.2286773 23361.8578226 50797.1381996
 53365.2011029 34330.361997 67120.9495529
 31192.9468888 59772.045899 81817.6680246
 9975.45533236 28069.9790377 67850.1099456
 41129.0736505 47853.8713043 51854.3700039
 51513.4303155 33216.9989422 79761.957021
 54255.165196 32443.553819 65170.116953
 31391.6680063 60077.7235068 79318.2837347
 53013.5446787 33879.5187051 65108.0639674
 46398.8324185 50764.533849 80570.6387335
 52842.319425 34392.1240667 68142.9897978
 53829.9501618 33006.9766395 66027.7434832
 53609.574459 32376.9613949 69015.5372074
 54847.9604669 33316.0471279 67105.7013126
 54609.9145216 33881.6494219 66118.4971697
 24607.1524943 23579.2837231 88026.4388237
 47537.7224797 45547.1405892 83553.606114
 54311.0127351 32843.4155755 64351.1753674
 51933.2004666 34901.8193413 67412.9755516
 53836.5453141 33311.157919 64350.7169958
 55315.061191 36103.8494981 68128.5910961
 52907.6833779 30936.5558319 66249.4010868
 53100.0336241 33132.8227289 64351.3864465
 52199.0174425 33443.1043328  65134.2193
 55017.0121119 34202.2129769 66957.3846187
 54498.7930805 35171.6456465 69019.8358938
 54689.2473293 32900.7853726 66244.4738799
 54989.1878768 33086.1590172 70407.4629441
 32650.4060705 17322.2573402 77791.5841021
 55906.5309162 34206.0708769 67722.6928808
 11874.0643201 39934.6757187 52333.9153387
 53601.2383332 33055.1284706 65119.2306901
 38265.0286379 16104.7591386 78417.2588134
 54822.4222374 34828.3634924 66005.1293889
 52971.0490229 39291.8551173 65096.2646808
 9874.58554842 32176.6311353 75537.5886307
 53877.6322484 35583.5415636 70578.9997294
 24991.0207983 22412.3019602 54441.1878582
 23316.1073138 14897.1100154 70265.3683405
 20274.397226 59899.3557414 70431.8733485
 54524.136457 36498.9536062 67621.5288206
 55299.9635077 35248.6967318 68546.7177148
 54584.7305683 34355.7103863 65197.3345105
 28702.5370409 56850.2113353 54974.3158679
 31701.7248159 63639.5637829 67207.6993673
 54962.6950789 34688.4289586 67752.4952389
 54453.9431866 36734.6426806 66763.7767592
 48686.2781768 47805.7071417 82122.8374555
 9123.7197616 39563.953501 65211.1207151
 6049.39316035 34634.6247704 62173.3246074
 33010.4672936 14548.4822259 75564.5082586
 19457.0709984 20219.2516342 77371.4180015
 13234.0811178 39229.0516007 83904.8408649
 31920.0940191 25169.1801827 90933.1348201
 8831.87019365 39291.7508126 82646.8171619
 44590.954403 16902.9633301 75865.4722855
 54544.9620647 37441.1619578 67767.9505924
 19389.8896742 26157.5953682 50032.1865169
 9565.33894974 27007.7340315 78774.6542842
 54028.312488 37065.2421391 70221.6117544
 53832.5719573 35825.7675211 69172.3614623
 55319.0430188 37044.0975148 68037.0080132
 52874.9808547 34508.6857245 70111.9460242
 33330.3147728 52793.9165728 89873.5246331
 53882.5553481 34702.6427473 70252.6550359
 55300.9081589 34822.0111341 69475.3315384
 54063.5473437 35732.0039959 66195.6256486
 20595.7081152 45579.1195592 89744.9949373
 52548.6311099 32891.0486246 71106.1866901
 54881.4213793 37127.4304777 69603.8145975
 55502.0298568 36772.5851225 68884.1486748
 50664.6669479 38939.3674241 58828.3884969
 52968.534028 33252.9459853 69104.5726844
 27870.5692292 57797.7774349 82745.3962194
 26771.9657268 57465.5912246 55326.1668634
 53017.3551502 35961.7599771 70589.9433052
 11808.5703566 21363.0768189 63127.0933272
 52943.813967 33720.8712576 70742.2831277
 52883.2061134  32913.5575 63457.3530678
 53079.6925581 35023.302025 70801.3327253
 53173.7439592 35471.9495387 69796.8703261
 50129.6725316 26081.766254 65173.2028357
 13688.3511083 42594.2130008 85463.0355591
 36521.8826964 50580.6532913 88174.0053472
 55500.5446347 36484.7530675 69834.2126291
 56259.0288317 35601.9761997 70246.7004061
 44443.6052677 38864.9941272 88365.608112
 52873.1090206 35199.4948785 71968.2568663
 9652.610901 45356.588072 83932.6270202
 52826.1597776 34405.3759434 71418.9716961
 37636.0945859 26221.3352063 50164.225596
 50236.9682671 42668.2633062 78602.1231863
 54320.8640357 33400.627628 71184.2828355
 55989.8831437 38211.8600268 66166.2990871
 18961.0360192 54239.871328 79507.4693528
 56120.1160522 34869.9099879 69959.7270499
 9698.46863203 42600.7556075 64393.8257708
 28478.014664 16866.0551749 56844.9798593
 26363.1193629 50819.619688 51116.4770693
 52693.708564 35213.1868156 65080.3612466
 54991.1238889 38160.6487945 65308.8944348
 50969.2731837 46707.3247082 78123.2803619
 43634.9019395 18563.6768512 68626.9564507
 52610.0651751 46649.1852856 78077.5332991
 43645.9917963 29383.0786864 49734.4207101
 22323.0795413 33042.199668 47791.0282031
 41626.9374353 37197.4881727 49022.1789879
 29955.9938504 35228.3744612 94626.5340719
 43341.1163473 19337.5551376 68908.5636122
 54072.6102095 29981.5832288 67211.5104607
 53437.5078477 30870.3674559 67658.6002744
 10725.7625057 49530.6657467 73298.279818
 11411.7906836 24106.6957585 65934.0818357
 55172.5734655 33349.4558222 71284.1383451
 53090.3244522 37354.7742409 71452.6214378
 55195.3711909 33917.8112947 70587.7132021
 52543.1526119 32653.9835779 71976.5118174
 6029.67615399 46535.3615963 68790.1667877
 52347.1233371 34888.2153955 64354.2642193
 53594.6439365 33787.4399798 71728.9048998
 36812.0918026 59425.3270644 83228.6688669
 50371.9829867 27063.63191 70450.5100356
 54909.8236422 30389.0713492 66877.4840052
 21733.9013485 15497.5550206 77404.9488223
 53136.4818292 30109.6172234 67129.399831
 45553.1387205 19785.4357264 69739.0848369
 7508.47786466 30805.4909142 80230.3500728
 52568.3661392 29372.6347735 65288.8872482
 27944.6818746 57439.4192341 83765.0010732
 48439.3864132 19361.5446847 68266.7880952
 16567.082852 20444.9497794 62757.5103732
 44792.154151 35021.5213015 89939.5203982
 35998.1951013 62294.8094925 71825.2529304
 9611.38625919 29884.7976797 65942.6449542
 39849.3377224 38854.7872409 94364.4685432
 53370.5401962 37958.2045297 64337.792029
 45472.8685514 22532.1990818 84812.9999275
 28496.9374977 63497.4763541 66820.7230983
 47894.8586888 19982.9512062 68772.8565444
 51455.344836 31556.1306167 69455.9055889
 13139.761961 45706.0444348 88018.8094141
 17287.1755196 39007.9321267 52796.4500228
 12742.0536786 49013.291584 59143.8621187
 6489.97356477 33854.6324225 77128.5943767
 9649.98415776 38129.3733797 63345.2456904
 29069.1221937 59705.3480709 72388.5673763
 41788.4593384 20986.5771156 80893.1443547
 55881.5426067 38848.2053074 65657.8459026
 50638.4130427 27821.5757403 67980.2008869
 45970.7682237 21684.4898858 66084.5542353
 39515.3259136 55173.7129626 83522.5334211
 48689.3144814 20595.190271 69236.6652295
 51947.6218098 36630.2666026 79877.7818031
 51367.5600801 27082.5982945 78258.0687016
 35419.6291435 28887.2696488 47512.0126299
 35921.4813122 61139.1941841 69199.1594123
 54444.392148 38615.077195 77506.9880736
 27934.9507658 22845.6128432 52627.7532527
 41154.2052161 55903.6112706 81100.6283778
 50675.8537989 31208.77328 65094.5336727
 6667.77171046 32927.7465726 68156.8983315
 50047.6112832 28161.1333849 69387.2581622
 23329.3512412 16496.3101113 64319.2182253
 48116.0134426 24581.0691501 65077.159165
 46924.6762799 23047.0356931 65113.0145957
 19553.8654759 18894.3438839 69066.1037191
 46576.5309166 22539.7715356 65937.218811
 47388.5345309 19340.8274841 70187.3915922
 40434.191036 22351.1473066 84039.3105312
 50452.0216916 27536.1951356 68745.2776987
 38696.8613445 55443.7475198 82801.1489989
 14939.5138872 31573.1599423 86817.1245473
 4884.0728474 37292.9517604 66005.4127043
 47200.0285629 21682.9285536 64343.0035415
 53028.2689667 37947.8145847 72134.6681449
 47729.351174 20276.1049372 64320.9140481
 53230.2679801 40435.1139671 65113.8362123
 48278.6420655 23807.788585 64350.4368678
 22580.7410686 53418.8635162 52305.2628153
 35216.5842705 59409.2660183 80654.392664
 47593.1641866 23742.8549892 65160.0213757
 47026.9974815 21770.0643115 63488.6904579
 11676.5749388 23018.2509045 77974.6887456
 8865.98221616 30581.8418051 79113.2101925
 28910.0701694 46592.9435826 94669.7200666
 50313.0244834 26888.1794808 71403.3094224
 24900.839408 14313.6293229 69422.3918147
 48897.0577405 23502.8310381 63564.4653352
 8781.35400092 37561.114025 84723.9943625
 5940.10272692 40749.0521148 65250.1871563
 49259.770937 26348.285913 65075.9548125
 51926.3198786 38426.2631898 79949.9704016
 48132.0928049 22658.2478339 63582.1882161
 50360.6905352 27228.0031967 69598.4095516
 46270.9309144 22463.0402827 63595.1013585
 29723.2136665 54837.8189075 50726.4093479
 49126.4087963 22684.277366 63411.345665
 14948.99269 56933.0167937 70287.3671532
 39443.8839256 57489.4823512 79667.2611308
 47229.1971306 22810.6640267 63569.7403621
 12368.9695316 29712.3332132 57714.497013
 37084.9166678 17498.8521451 65727.4008605
 51490.3927383 31674.0776579 71437.3146539
 48202.4986779 23192.2189279 62835.0258718
 49259.7404629 26540.89414 78887.6676635
 25746.2714808 61696.5154205 71235.2724019
 45544.7556583 26296.2698855 59503.4857881
 50186.0610194 26116.1482623 73950.5053648
 24507.0942885 58504.9677844 79977.3409685
 49575.8838884 50916.6760316 81946.923547
 49749.5992149 28376.3154335 82775.3487498
 30116.0686342 62401.6860293 75566.2128039
 40239.2947494 38192.6105926 94325.1222239
 49779.2416757 37136.2038105 60096.6570376
 15448.9933134 37146.4210325 86358.3543189
 50016.1650395 28130.6133996 72017.5595875
 40826.0452291 56773.1482525 66202.4088625
 48668.7379305 21976.2977904 63522.4060421
 27053.3450128 15292.8933357 69014.5601011
 51192.3991763 35535.9240863 83071.892362
 50471.6211488 27193.6822755 72164.1256269
 50994.0360405 26854.4882712 72997.2082232
 49898.0653751 27549.3401516 65250.6834703
 45754.7551948 23937.9259238 63228.0479015
 51133.460564 22385.3144942 70959.2933688
 52097.1013367 31722.5125482 79027.470386
 47130.1193755 20924.8774921 64343.5166104
 35230.7373275 47168.3404358 92307.7322847
 53510.1468789 26604.6990115 67142.490724
 50665.2471167 29363.4704984 70104.1239686
 27488.5137511 63539.8366049 72152.2507831
 50330.3746038 21403.4786816 69691.4135037
 12525.9298869 48012.4189525 86160.8353727
 49900.2212901 20924.9392352 68626.8307282
 39178.0498118 31260.190855 91937.5436299
 51885.9563109 26312.8792794 72010.8664674
 52047.337671 27754.5219827 78058.8360456
 33573.9224659 55176.5044797 53476.3324698
 26717.9780295 17744.7370856 81802.4744996
 35227.3795959 60662.6371972 58803.2328264
 22153.7480303 19909.0997951 82773.6654344
 38447.0182871 46768.4194182 89726.3887385
 27233.1403922 62463.3337143 70293.9123202
 52202.0475574 47294.8286385 59946.1727999
 48574.7501681 26111.172703 73941.5873645
 50310.834465 25103.4782182 78677.7624059
 49920.3320736 26013.9770358 78103.0030109
 49038.3012289 24667.4674854 78869.5253723
 40820.2129685 40064.1777981 94013.9203198
 32802.386447 61114.1828857 73758.8223791
 39072.5870426 14645.9744913 73791.656417
 30141.3196268 40884.3845822 47325.7998858
 49536.9843381 28987.8150421 78732.0477278
 51110.9001371 26980.4218386 77145.9318702
 49644.5266062 26740.88216 79758.5671425
 50401.0115976 26914.3417501 80372.612695
 51681.3336146 27747.523936 78998.0220931
 50038.8810873 26990.6356146 81506.7188646
 8773.45547429 32776.8737858 78198.4697856
 38249.9671021 57177.8251838   84224.019
 43345.8654225 47574.0170705 89361.8731139
 51813.8767684 27252.189421 80307.588823
 46931.5036449 23743.7355129 67595.3913212
 15996.718804 35596.3324954 53872.6785365
 50045.971279 29205.4987477 81867.3616785
 50761.0114054 28667.5822709 80110.3692287
 25478.2333746 62531.1733956 71526.6890104
 50658.7374823 26546.5076071 77872.592928
 26437.8244481 13906.7982129 70906.5966462
 51251.6532539 27995.5526431 77179.6752848
 50967.6036086 28379.3207171 79165.8786336
 15957.0934793 25317.9695699 57992.8967931
 33469.6248807 22626.8048897 89947.4988427
 48860.7307151 30216.3899982 79520.1640616
 51970.5995492 26483.6222928 79074.9542653
 49365.8658761 25154.0076766 80376.6747002
 31212.7554527 15547.3190599 83463.7956625
 21251.3267054 20875.9910463 55306.2168541
 40769.2825152 53391.3819864 87129.0938006
 45161.3529266 28836.8605096 88557.2095525
 51719.0314105 28555.8583957 79804.0092101
 10603.4275291 50464.3115585 69335.1002267
 51862.3829255 27218.4703813 76345.7483464
 42626.2976682 20911.7326535 56450.8172388
 11871.6658635 41229.3218992 85366.2444708
